ply
format ascii 1.0
element vertex 782
property float x
property float y
property float z
property uchar red
property uchar green
property uchar blue
end_header
0.07167544141243791 0.08547157650243756 0.3193272229475994 148 67 229
0.16498773558889662 0.033213 -0.07340354461275081 199 15 77
0.11233886771959223 0.033213 0.19687654168501906 170 15 182
0.264937 0.2315511844326032 0.3074452204847834 255 214 224
-0.197719 0.02588371750000591 0.2650213628675336 0 7 208
0.20022177412781503 0.10781883488149444 -0.260382 219 90 5
-0.12160332980470115 0.033213 -0.15847314583670574 41 15 45
0.24972 0.1925562834081642 0.07913235547450068 246 175 136
0.06628808930323582 0.10483277840301997 -0.275382 145 87 0
-0.14348792889703166 0.024518120774356708 -0.275382 29 6 0
-0.1353336331718662 0.07800612693588048 0.08109013815646807 34 60 137
0.09782623055629938 0.04593925506495044 -0.260382 162 27 5
-0.0032932028048999473 0.033213 -0.25317852489574266 107 15 8
0.07065249763609849 0.063578 -0.000731465828638379 147 45 105
0.250486 0.14174240185714046 0.02669704518166144 247 124 116
0.05982436586955313 0.14026286009878375 -0.258979 141 122 6
-0.17514349172531665 0.033213 0.3821911439633845 12 15 253
-0.10559166004815312 0.2325301064307071 -0.275382 50 215 0
-0.08476096277928405 0.041295939928444714 0.07860878340545935 62 23 136
-0.13814091247249852 0.09156749673145635 0.01664512859802286 32 73 112
-0.14507681235720904 0.018213 -0.002823302418306098 29 0 105
0.24972 0.10549436764552252 0.21915734384725585 246 87 190
0.2615955615237097 0.12785468752509282 -0.275382 253 110 0
0.15054042005823096 0.16137498739256462 -0.260382 191 143 5
0.21279604917245493 0.064426 0.21016048456052003 226 46 187
-0.14259550820266326 0.033213 -0.23251078683315826 30 15 16
-0.0073236367038433114 0.23668685334178624 -0.260382 104 219 5
0.24972 0.1554518749204368 0.27384106447574663 246 138 211
-0.12142950033679734 0.018213 0.2231100417306567 42 0 192
0.264937 0.21820536904438553 -0.04083491373210979 255 201 90
0.0029650137625241643 0.06809706615451695 -0.04627627248085235 110 50 88
0.05476829186886359 0.04435122869302572 -0.260382 139 26 5
-0.11954654075061263 0.15398539952872256 -0.260382 43 136 5
0.1774545548739464 0.033213 -0.16865364353873868 206 15 41
-0.19145110620576156 0.018213 0.31192394818255753 3 0 226
0.07165428471812223 0.063346 0.2073283055347679 148 45 186
0.013576489442916702 0.08015400477865066 0.29294925739561967 116 62 219
0.264937 0.1552884586238364 0.11774482720975986 255 137 151
0.24972 0.13244423831711968 0.13425558049029881 246 114 158
0.25363193327054834 0.018213 -0.018111225993923535 248 0 99
0.250486 0.12172303913930606 0.16026316853009395 247 104 168
0.16812639067224225 0.063578 0.2857067905251913 201 45 216
-0.14076173265533806 0.17093590509674694 -0.260382 31 153 5
0.249937 0.14560638425093808 0.11258889461699143 246 128 149
0.10566986530590602 0.08333311941444521 -0.275382 167 65 0
0.14902988457038133 0.018213 0.0938759032564828 191 0 142
0.250486 0.16337430957307458 0.06896990020614518 247 145 132
0.249937 0.2680214630883763 -0.13379493656748695 246 251 54
0.264937 0.2529571741014982 -0.18110598078093185 255 236 36
0.001986979781674586 0.033213 0.38369397245057707 110 15 254
0.21344997041165653 0.064426 0.3438291033608756 226 46 238
0.21625950485397658 0.13696798294736676 -0.260382 228 119 5
0.004773225086653342 0.05071109453107326 0.15597873701612014 111 32 166
-0.06993426716184958 0.14886800046562662 -0.258979 70 131 6
0.05729726857393477 0.018213 0.14224781412342208 140 0 161
-0.17150556090100533 0.033213 0.2437681467947611 14 15 200
0.249937 0.1374277038882826 -0.1943650294612432 246 119 31
-0.17370147636985378 0.018213 -0.08275635245311135 13 0 74
0.023426645627225823 0.018213 -0.17802108232523678 121 0 37
0.264937 0.07071795910912551 -0.27398247475745624 255 52 0
0.023982187118520487 0.06424653207268496 -0.17443978569969798 122 46 38
0.250486 0.13385365428600574 0.047837463161032046 247 116 124
-0.09479651694581054 0.018213 0.3477439995073218 56 0 240
0.0041666029191964275 0.08570665085587897 0.04528965449417853 111 67 123
0.1263122262214922 0.018213 0.2996769162900249 178 0 221
0.16253320914872807 0.033213 -0.06544537681352788 198 15 81
0.264937 0.14104955588320361 0.06407871842021923 255 123 130
0.11126869529043601 0.018213 0.06461358206794399 170 0 131
0.2270846527965129 0.08514245013635183 0.04013362373129017 234 67 121
-0.191246192374387 0.018213 0.24964998574526215 3 0 202
-0.09708034486239603 0.018213 -0.06183952393348986 55 0 82
-0.1499931478428592 0.033213 0.209245806665951 26 15 186
0.05865443970862333 0.080695 -0.17487055526358397 141 62 38
-0.19579661474364116 0.04758747771781433 -0.260382 1 29 5
0.061966347971754765 0.08632968081150393 0.039170893612435365 143 68 121
0.064729431349074 0.082349 -0.15074141019349904 144 64 48
-0.197719 0.030822263475300638 0.35681351839861025 0 12 243
-0.01534911438884301 0.018213 0.35693586310409575 100 0 243
0.23454377241251004 0.033213 0.09918029609404974 238 15 144
0.23733640649835677 0.042295704749270024 0.07067959369262929 239 24 133
0.018565614516134525 0.06207119291233369 -0.18046227907642046 119 44 36
0.24847612965598845 0.07503792261058526 -0.260382 245 57 5
-0.1906835432438934 0.15480786208028996 -0.260382 3 137 5
0.24559233415782175 0.033213 -0.00018563134614392116 244 15 106
-0.18497988343481792 0.018213 0.13999007460882096 7 0 160
0.1821248997079655 0.018213 0.08593029098543206 209 0 139
0.24972 0.2021587479052086 0.008809647463409453 246 184 109
0.03748789942847839 0.08679869986205445 0.3067807931354276 129 68 224
-0.009260157070458463 0.271802 -0.27401084536005776 103 255 0
0.14730130477614725 0.018213 0.040169185937482865 190 0 121
0.0676531770172474 0.11345620229960861 -0.260382 146 95 5
-0.18510789891849314 0.033213 0.15925543683205684 6 15 167
-0.046495041120853925 0.018213 0.04850042338603251 83 0 124
-0.1609692304480176 0.271802 -0.26222581548160995 20 255 5
0.11459400601257433 0.19837020983408343 -0.260382 172 181 5
-0.03545719896748267 0.14728257135488254 -0.275382 89 129 0
0.260760587293796 0.09351554032431261 0.385499 252 75 255
-0.16837558736805555 0.17117698723687236 -0.275382 16 153 0
0.22574141009235507 0.09964051898209224 -0.260382 233 81 5
-0.03917579348039357 0.018213 0.007822048355522903 87 0 109
0.24972 0.14832073379167465 0.1068568047988975 246 130 147
0.10749721130557749 0.14890156352314746 -0.260597 168 131 5
0.249937 0.2443099471009559 -0.04389858883313169 246 227 89
0.18711639989078624 0.018213 -0.03347506483000809 212 0 93
-0.197719 0.026819932996464062 0.1240770246447987 0 8 154
0.06960776072898184 0.018213 0.283070015485968 147 0 215
0.264937 0.11852238391608823 0.29199906474982656 255 100 218
-0.1104531693827695 0.1338382261446873 -0.275382 48 116 0
0.1023783831389857 0.018213 0.3398852313935807 165 0 237
-0.04706425664140901 0.10264520611413863 -0.275382 83 84 0
-0.19171175327172635 0.018213 -0.25887672988814986 3 0 6
0.249937 0.042729741148493997 0.08860361889756288 246 24 140
-0.0027536644827467482 0.033213 0.3277379051990339 107 15 232
0.07009774284995486 0.1250515366846282 -0.260597 147 107 5
-0.019461914612327824 0.033213 0.24907792448286153 98 15 202
0.249937 0.08514234815970155 -0.08765785627464687 246 67 72
-0.1555389076757548 0.05700931808403982 0.011939008254017947 23 39 110
0.2046678645700001 0.033213 0.254947668200464 221 15 204
0.249937 0.12537344334387213 0.30376053648141427 246 107 223
0.027615458201748346 0.08249948701622312 0.1575433457464776 124 64 167
0.264937 0.02852456804272825 0.3444252905612443 255 10 239
0.249937 0.08358205363187551 -0.15772321737783362 246 65 45
0.264937 0.22083556165088367 -0.24429523651932844 255 203 11
0.04461758039321878 0.08070251497690907 -0.20523563038309425 133 62 27
0.264937 0.10049305233930769 -0.09629155377693173 255 82 69
0.249937 0.07757215238522813 -0.06906879284315981 246 59 79
0.24972 0.18410879262174185 0.2670679663374401 246 166 209
0.0705819740001492 0.042762155804196185 -0.168553 147 24 41
0.21094698895337052 0.033213 0.05643297217338798 225 15 128
0.264937 0.057479042166639335 0.37758458012936547 255 39 251
0.14940509325352236 0.018213 -0.1447714605930231 191 0 50
0.18066607258362202 0.018213 0.37295007631634663 208 0 250
0.249937 0.046661584890980254 -0.17632878574740107 246 28 38
0.0738164073515141 0.033213 0.3516215160445471 149 15 241
0.264937 0.07039231114979719 0.03326038721942212 255 52 119
0.04998444607452034 0.08102988728941854 0.01983756996002464 136 63 113
-0.18441667012706325 0.018213 -0.2696833529590915 7 0 2
0.249937 0.08599570128938831 -0.11244386116504734 246 68 62
0.26081511558488424 0.04182694268281984 -0.275382 252 23 0
0.264937 0.24768729504245932 -0.030835510628129736 255 230 94
0.264937 0.1599658588521048 0.31838306320595466 255 142 229
0.264937 0.26718897425645477 0.22896180271957756 255 250 194
0.264937 0.11717707095211924 0.02925817079375885 255 99 117
0.17849385334911708 0.08773075456220533 -0.021603234127564014 207 69 97
0.2214563970087579 0.033213 -0.208328043409388 231 15 25
0.1858628606193717 0.018213 0.15635626068687164 211 0 166
-0.06982042202611571 0.033213 -0.028972428285238244 70 15 95
0.029201353157316992 0.08669069934606595 -0.256807 125 68 7
0.249937 0.23134667811819087 0.14482163948528648 246 214 162
0.1200112126935218 0.033213 0.3731888987686761 175 15 250
-0.15753801056132635 0.085595498393748 0.09640859387508982 22 67 143
0.18032618438678769 0.033213 0.016185328831536477 208 15 112
0.021296567890841445 0.08829258942641147 0.1114379273206846 120 70 149
-0.08608944925576462 0.04275143877177141 0.06560187784472471 61 24 131
0.08408789025054988 0.1117646530113761 -0.275382 155 94 0
0.25586527787254615 0.271802 0.2470494019153183 249 255 201
0.006060026469348556 0.033213 -0.20929573984505923 112 15 25
0.13895379601044475 0.018213 0.005262749439594485 185 0 108
-0.09397722066533837 0.018213 -0.10230924563151209 57 0 66
-0.17358856709773993 0.033213 0.0486206082258173 13 15 125
0.20054238724357065 0.06196720548332028 0.33988861982550955 219 43 237
0.23838174069839743 0.033213 0.35868234553040607 240 15 244
-0.1379645772523137 0.033213 0.242435067017438 32 15 199
0.05547646660934635 0.033213 -0.23893930011386066 139 15 14
0.08171685701629114 0.07061058741495527 -0.260382 154 52 5
0.04869017117956154 0.033213 0.040633336970398226 135 15 121
0.08043206837563047 0.033213 0.1801778538686306 153 15 175
0.10624234331127688 0.04431466114987004 -0.275382 167 26 0
-0.03556431423042378 0.018213 0.2835193049849993 89 0 215
0.16651881431037627 0.037086228738402394 0.09772908053696247 200 18 143
0.250486 0.12310333662888037 0.1347269721239388 247 105 158
0.249937 0.11059052592296918 -0.05480277569059173 246 92 85
0.250486 0.16466349357857837 0.12739719988258277 247 147 155
-0.15247976974364516 0.2285778566575093 -0.260382 24 211 5
0.249937 0.10137377490836354 0.3482392520957801 246 83 240
0.07558340841634556 0.018213 0.15641801488787413 150 0 166
0.06947105292224397 0.064426 0.3379405064691502 147 46 236
-0.07359709328899963 0.033213 0.027231531061039788 68 15 116
0.25058623573585426 0.018213 0.32490102315722486 247 0 231
-0.035171314859482355 0.086496 -0.2576008666006954 89 68 6
0.24372756655035796 0.018213 0.08924288119240785 243 0 140
0.24972 0.19368059784883207 0.2651941358625576 246 176 208
-0.06110927243311684 0.033213 -0.0649337386506643 75 15 81
0.07223786821456724 0.0618979821390795 0.006193849585650768 148 43 108
-0.15555828336059785 0.033213 -0.21911732703970227 23 15 21
0.13165033367405024 0.05664336542946094 -0.260382 181 38 5
-0.051773962759555786 0.018213 0.14644986063864626 80 0 162
-0.03601182192366348 0.018213 0.18220613047116463 89 0 176
0.249937 0.0993646715010138 0.2524105560548834 246 81 203
0.1425374205639137 0.07886018219158655 -0.260382 187 60 5
-0.023103687282984564 0.10616562295627127 -0.275382 96 88 0
-0.15305461013671037 0.033213 0.23122012892098726 24 15 195
0.13812232302989427 0.033213 -0.07130325763504716 185 15 78
0.1946276725300689 0.033213 -0.041131832685444965 216 15 90
0.264937 0.049354427890523744 0.3603467579695603 255 31 245
-0.04944700211281772 0.033213 0.2518704236686067 81 15 203
0.16637042198388688 0.018213 0.38224558083245264 200 0 253
0.18380909010759505 0.033213 -0.07631646055366909 210 15 76
0.07772396369517906 0.18469533266399413 -0.260382 151 167 5
0.249937 0.14095837120048318 0.33401098827057174 246 123 235
-0.14576488402042112 0.1134617210913146 -0.260382 28 95 5
0.22638610779580662 0.03977128081284709 -0.260382 233 21 5
0.015707654378867095 0.08149223690109714 0.021077630382583493 117 63 114
0.0047129946810607025 0.043064449807129784 0.018771961668484848 111 24 113
-0.09497527836606977 0.10890937784654015 -0.275382 56 91 0
0.25544896804550987 0.271802 -0.23712146359863656 249 255 14
-0.01104831836700998 0.062192459738310266 -0.275382 102 44 0
0.19264687674949996 0.018213 0.038136543072706225 215 0 120
-0.19541198613944122 0.018213 0.344511442228153 1 0 239
-0.19157668883197448 0.033213 0.32433407725628405 3 15 231
0.2585988401438024 0.018213 0.09771528493246387 251 0 143
0.24012332121776056 0.018213 0.10728092509304292 241 0 147
0.23445576955756176 0.08640591947301365 0.038417944809183195 238 68 121
-0.0038196473970125433 0.086496 -0.25936383616815045 106 68 6
0.2078235240817407 0.033213 -0.12335905688338886 223 15 58
0.15861649222115043 0.033213 -0.24668444545038973 196 15 11
-0.18341964092448879 0.033213 0.32899609174940586 7 15 233
0.23879772005003777 0.08604897960978951 0.3138130055121058 240 68 227
0.01369636236346259 0.08592934613506807 0.16918131561748032 116 68 171
0.22642896219779374 0.063346 0.21503390658148155 233 45 189
0.264937 0.12956656023619695 0.3520786804158429 255 111 242
-0.0436307917514252 0.033213 0.2533662343697954 84 15 204
-0.15261266525134504 0.018213 -0.13856885516874431 24 0 52
0.23405601044226673 0.08985557264536013 0.10231451616588692 237 72 145
0.18269891958778833 0.10932188000187797 -0.275382 209 91 0
0.06934169491357348 0.11752629329763675 -0.258979 147 99 6
0.02013849536660238 0.11985431388956964 -0.258979 120 102 6
0.264937 0.2581773958885823 -0.1349446399385989 255 241 54
0.18326392048796394 0.018213 0.24689630922559347 209 0 201
0.24744836964826739 0.033213 0.12616118148316385 245 15 154
-0.06231047055313002 0.033213 0.006742491025064884 74 15 108
0.24972 0.16651029428137656 0.11332570155428726 246 149 149
-0.11692196374092165 0.018213 0.02811972666483757 44 0 117
-0.004342 0.07975032491122004 -0.13980985713935723 106 61 52
0.043078268989313315 0.08618798732894882 0.3125857158516701 132 68 226
0.21643829239374043 0.033213 0.32774818468686095 228 15 232
-0.07781906755939073 0.11339355701699616 -0.260597 66 95 5
0.250486 0.17977673842825495 0.24951429309252246 247 162 202
0.249937 0.08535996095330001 -0.1807980706337171 246 67 36
0.11279610059435183 0.11906081065073575 -0.260382 171 101 5
0.251910234280345 0.018213 0.31343897652183145 247 0 227
0.22920001475140686 0.018213 -0.2610259091252056 235 0 5
0.029666479319041927 0.10528216306397198 -0.275382 125 87 0
0.264937 0.16148229472914954 0.06163182213564118 255 144 130
0.264937 0.25300589149993796 0.26162302615012245 255 236 207
-0.13112618014113872 0.07681768472805404 -0.260382 36 58 5
0.1374607893295561 0.018213 0.34290488703730443 184 0 238
0.05090513053959472 0.08825895637208049 0.24714858711321125 137 70 201
0.264937 0.09753843600483725 0.024374746229236875 255 79 115
0.264937 0.1503997498099276 -0.19112148044699356 255 132 32
0.09698719533407352 0.018213 0.3607101665970627 162 0 245
0.13584082777213222 0.14275988524196884 -0.260382 183 125 5
0.250486 0.12378676281782051 0.15647548019292257 247 106 166
0.1190645337081375 0.018213 0.10194285516919835 174 0 145
0.21363276108055237 0.18276310629027187 -0.260382 226 165 5
0.264937 0.25688086000228877 -0.1421431783079793 255 239 51
0.07208908016258186 0.063346 0.20276766415521646 148 45 184
0.18215017716890772 0.033213 0.3086779253401312 209 15 225
0.23946139205242184 0.08973213629628195 0.10930078021633699 240 71 148
-0.06140968838690797 0.018213 0.3390979280646719 75 0 237
0.19312294022207674 0.018213 0.18360201106581042 215 0 177
0.17769991263900525 0.033213 0.3518809600563357 206 15 242
0.18187732953026958 0.033213 0.25819723861737465 209 15 205
0.07438467757633886 0.08545032514835735 0.037163524879260085 149 67 120
0.264937 0.037921401426224716 0.01555097757633437 255 19 112
0.06381313588764051 0.06441675251012435 0.06100209417914847 144 46 129
0.026777719373255494 0.063578 0.0006447542254311572 123 45 106
-0.09482600202188007 0.06852520519318134 -0.275382 56 50 0
0.04629458358229205 0.018213 0.347788423583714 134 0 240
-0.12630571192872328 0.018213 0.29317043741501503 39 0 219
-0.04058114893652093 0.018213 -0.12357663550647502 86 0 58
0.17853893229397794 0.063346 0.34642688613397055 207 45 239
-0.19130622163631678 0.018213 -0.11797255010730842 3 0 60
0.250486 0.15111823702211152 0.08231291285591 247 133 138
0.264937 0.2673816147001868 -0.2576896384006518 255 250 6
-0.0238780454515643 0.018213 0.05082987964330314 95 0 125
0.06077536027250967 0.1498991113526686 -0.260597 142 132 5
0.264937 0.1942612169140479 -0.22948159978752197 255 177 17
0.0688917955445277 0.033213 0.23649105689284355 146 15 197
0.249937 0.20122746702235053 0.11252086358569752 246 184 149
0.06695992371257228 0.08656672771598381 0.02654330003325676 145 68 116
0.0812022518873031 0.018213 0.023359438258528264 153 0 115
0.250486 0.18068909366018143 0.0951735887164932 247 163 142
0.0664538888647801 0.064426 0.21008891716475409 145 46 187
0.11140584020790076 0.2066294570795802 -0.275382 170 189 0
0.1934704233528156 0.063346 0.33657138857349667 215 45 236
-0.021757831261426774 0.018213 -0.17247920017452611 96 0 39
-0.15878196694711863 0.033213 0.16314858616412695 21 15 169
0.250486 0.14923681622875518 0.2757563318227405 247 131 212
0.05343050892535406 0.033213 -0.22086881644126108 138 15 21
0.249937 0.15174245719700616 -0.23324677992064397 246 134 16
0.0575805462376721 0.064658 0.13504833020187576 140 46 158
0.264937 0.17599627556908395 0.11480525609091913 255 158 150
0.20861223349274005 0.05283788622586916 0.2775942928755091 223 34 213
0.250486 0.13326231697760593 0.23842637956240423 247 115 198
0.040935127632916596 0.09166612029942059 0.23391350904610136 131 73 196
0.249937 0.27141559194213394 -0.06794869346716578 246 254 80
0.20085613794471935 0.033213 0.2321483869873522 219 15 195
-0.06075135613172153 0.018213 -0.11629032379950366 75 0 61
-0.17918565319243057 0.018213 0.2641923380306032 10 0 208
0.2461972926204092 0.06644375705324299 -0.260382 244 48 5
0.2645248432668442 0.271802 0.37729807129737836 254 255 251
0.045794408533286146 0.18869348068587494 -0.275382 134 171 0
0.007644065574473058 0.1344993226639237 -0.275382 113 116 0
0.0729645538710721 0.064426 0.22073466575590875 149 46 191
0.24356731439743956 0.064658 0.26851299170423254 243 46 209
-0.0867934481656682 0.018213 -0.05166502401759705 61 0 86
0.042661140620462265 0.064426 0.35004727107012196 132 46 241
0.24972 0.19607297361769482 -0.0006583525583787053 246 178 106
0.2429975785133381 0.10215514801633632 -0.275382 242 84 0
-0.09467655507971642 0.033213 0.09369948265888656 56 15 142
-0.1126048320026883 0.033213 0.264395317196623 46 15 208
-0.1689695809427154 0.018213 -0.2561172725035612 15 0 7
0.025659572115712737 0.14187619609229202 -0.258979 123 124 6
0.07411503392169501 0.06937327453766963 0.08850020212321741 149 51 140
-0.09990114054805263 0.033213 0.014110115340376289 53 15 111
0.249937 0.16781533995233566 0.2858106381915753 246 150 216
0.2172935073865418 0.23422532406928065 -0.275382 228 217 0
0.22267917946193727 0.08956358139654907 -0.02607648497196271 231 71 96
0.17982478441249178 0.063346 0.21964535587122572 208 45 191
0.12055102368719536 0.14452409886857223 -0.260382 175 127 5
0.0822698500355987 0.033213 0.37551117457904315 154 15 251
0.07400631413181805 0.034272782607394386 0.22038514441563983 149 16 191
0.01355692049302612 0.033213 0.21624609154814065 116 15 189
-0.18442362063397566 0.2344787578046694 -0.275382 7 217 0
0.19136934185165877 0.033213 -0.0731653535594233 214 15 78
0.249937 0.2603100278533975 0.027379933611368923 246 243 116
0.264937 0.20464924912222737 0.08289477527624838 255 187 138
-0.17243196135228647 0.033213 0.11916812044261418 13 15 152
0.2228935461436304 0.11555361105232848 -0.260382 231 97 5
0.12043682643601572 0.018213 0.27432373466739796 175 0 212
0.09016809315715055 0.018213 0.16000966640469055 158 0 167
0.250486 0.195716771640205 -0.010782008457452946 247 178 102
0.250486 0.1031756200918884 0.27345280067882766 247 85 211
-0.12581745011538387 0.018213 0.37336572323625966 39 0 250
0.23619832025795467 0.03428194719679227 0.28062612008605564 239 16 214
-0.06343617983232214 0.07890061092411815 -0.275382 74 61 0
-0.049764529192690476 0.018213 0.12090647317449921 81 0 152
-0.017050084998269793 0.033213 -0.25560115254051546 99 15 7
0.264937 0.0754688339485974 -0.09093206691023997 255 57 71
-0.17149818232006692 0.018213 0.044562284242025046 14 0 123
0.24680682598140052 0.17891255357547262 -0.275382 245 161 0
0.0023199656131038127 0.0558946491848046 0.08801276184943196 110 37 140
0.249937 0.12242270541690865 -0.18288962387830537 246 104 35
-0.09405317812484985 0.018213 0.15734717805439305 57 0 166
0.249937 0.2625584728786919 0.05496333978859 246 245 127
0.2382933599995132 0.034042868026966974 0.07754942753425208 240 15 136
-0.10646532775137507 0.018213 0.13235645251797964 50 0 157
0.013124857014873259 0.033213 0.13986587850760795 116 15 160
-0.12299349070502606 0.033213 0.21191686202443671 41 15 188
0.10497261970279884 0.018213 -0.024660574769735415 166 0 96
0.264937 0.1821327587929602 -0.24800143052111612 255 164 10
0.14417355390622022 0.033213 0.1960457062255862 188 15 181
0.2361079537971615 0.018213 -0.2620046668275944 239 0 5
0.0357699576459867 0.018213 -0.12766346161195125 128 0 56
0.21636862026348688 0.018213 0.08206338742286516 228 0 137
-0.08677978118728716 0.08946692185846526 0.0348400397039581 61 71 119
0.13257089822270368 0.018213 0.010693642746880375 182 0 110
-0.06998604007307699 0.12459717078557415 -0.258979 70 106 6
0.062183237435964434 0.018213 -0.036623484720580635 143 0 92
-0.09199635784705576 0.17912217366917033 -0.275382 58 161 0
0.07112633411403811 0.06374140695824458 0.26594335235036404 148 45 208
-0.09427072084648708 0.033213 0.33525888779749485 57 15 235
0.264937 0.2448271790795434 -0.13937893693628164 255 227 52
0.16722956848870316 0.045901516032028404 -0.05114061919731934 201 27 86
-0.08072458505479926 0.018213 -0.1327523969274074 64 0 55
0.17283999907085343 0.08911557755078588 0.2928197697998326 204 71 219
-0.05608032184150183 0.15483004922414403 -0.260382 78 137 5
0.249937 0.22489848794695028 -0.10573069759004802 246 207 65
-0.061233782887629984 0.018213 -0.07216023357907193 75 0 78
-0.13551450108001675 0.2645757057523695 -0.275382 34 247 0
0.21808770500353516 0.033213 -0.0483163792306806 229 15 87
0.09455865638692759 0.033213 -0.02678070477419199 161 15 95
-0.197719 0.07597756661254305 -0.2739255115228641 0 58 0
0.19509437781777894 0.14323922654581214 -0.275382 216 125 0
-0.06280882817100991 0.05312234947215851 -0.275382 74 35 0
0.24972 0.151452647384164 0.10745088591011129 246 133 147
0.24972 0.20232740378493483 0.19604720361070357 246 185 181
0.011437103963580565 0.063578 -0.0018186943026757968 115 45 105
0.264937 0.0575790751646728 0.21065195721852803 255 39 187
-0.008096355237880036 0.04074822403357286 -0.168553 104 22 41
-5.693701496639614e-06 0.033213 -0.019008478155762676 108 15 98
0.24972 0.1587160487803385 0.09884491658863873 246 141 144
0.09037737686129471 0.1661121906222363 -0.275382 158 148 0
0.249937 0.19628599482272518 0.07091374278869989 246 179 133
0.2166847741135531 0.018213 0.3446785530140214 228 0 239
-0.0024614804588240224 0.033213 -0.19287634769241252 107 15 31
-0.1446820473327795 0.271802 -0.2657636677746178 29 255 3
0.2512118879228534 0.18935532454550102 0.12331235452927598 247 172 153
0.249937 0.11513416471314118 -0.042238447541603455 246 97 89
0.21005530192371147 0.08762483263106216 -0.021201141068888377 224 69 98
-0.16273931640893513 0.018213 -0.1085083801570125 19 0 64
0.250486 0.11628204509826984 0.20401994837100668 247 98 184
-0.15681135652617867 0.09258014855255449 0.017183561834591042 22 74 112
0.07686695697403498 0.12011607600139712 -0.258979 151 102 6
-0.08457677013615417 0.018213 0.2158850658370971 62 0 189
0.249937 0.19772074684116073 0.026569897287212305 246 180 116
0.20917888318275263 0.033213 -0.1744765879707623 224 15 38
0.249937 0.23330299752404526 0.1395101807795202 246 216 160
0.264937 0.08147289226715645 0.09209858507948208 255 63 141
-0.10165666628758854 0.033213 0.2974257959561315 52 15 221
-0.156205322439976 0.033213 -0.13422454440217382 22 15 54
0.17970544970511165 0.033213 -0.16740369715820314 208 15 41
-0.08982662702227162 0.018213 0.047595147089666626 59 0 124
-0.0865754289093831 0.0345065635571018 0.07072061447653782 61 16 133
0.264937 0.11247984747023285 -0.06802022406594019 255 94 80
0.24972 0.14371699423298853 0.1334983020165693 246 126 157
0.1684544298481166 0.043799367661070454 0.16607533383622333 201 25 170
-0.197719 0.02524631229260578 0.3482771649626063 0 7 240
0.264937 0.07209989004279528 0.013832950969734144 255 54 111
0.19860003429565037 0.033213 0.18851649695255102 218 15 178
-0.07407075039183653 0.033213 0.0852020470373962 68 15 139
-0.16671872124500553 0.033213 0.33701128175758177 17 15 236
0.249937 0.09401224994007507 -0.023732071204765802 246 76 97
-0.09905927608099016 0.033213 0.03986538880981717 54 15 121
0.061367011438312496 0.033213 0.13858167112892728 142 15 159
-0.0023390631268904545 0.064426 0.34254347606579966 107 46 238
-0.13585194886734908 0.018213 -0.039178766174944216 34 0 91
0.249937 0.1231678569023881 0.04486025694334177 246 105 123
0.264937 0.05619070798317513 0.01418699243644073 255 38 111
-0.019428221151640612 0.19357912925467113 -0.275382 98 176 0
-0.1106688720420342 0.1748841540005336 -0.275382 47 157 0
0.22344815531803858 0.0863450619005618 0.30068582321349724 232 68 222
-0.11548206138956926 0.1815981063360627 -0.260382 45 164 5
0.03565471919933695 0.05377951779529752 0.14309243116013393 128 35 161
0.264937 0.05777947839412585 0.35620190559382825 255 39 243
-0.19464795546578162 0.018213 -0.00982907560329847 1 0 102
0.18401318186903623 0.0866860465383088 0.11533107298530249 210 68 150
0.249937 0.14073570673121377 -0.15228227036490716 246 123 47
0.10309722737370322 0.033213 0.3255269710373709 165 15 231
0.11935586386105407 0.24125398726074426 -0.275382 174 224 0
-0.11415287616917202 0.031335391736912535 -0.275382 46 13 0
-0.028077311071630057 0.033213 -0.025344018846631955 93 15 96
-0.13961835704648246 0.018213 0.20947670844945643 32 0 187
-0.11101530000446438 0.033213 -0.23944723153321001 47 15 13
0.2370085707160542 0.06152230670623363 0.3408552356739534 239 43 237
-0.16518330136848355 0.23503632152763979 -0.260382 17 218 5
-0.1177782680306954 0.033213 0.008788168404723212 44 15 109
-0.15537738818555613 0.018213 0.1507258834956215 23 0 164
0.088779295313794 0.14763356169993294 -0.275382 157 130 0
-0.08495873903131375 0.033213 -0.09059217858658207 62 15 71
-0.10992739605653945 0.064658 0.05460364325500183 48 46 127
0.249937 0.2261785306300694 0.3321763672662761 246 209 234
-0.10648078688157878 0.033213 -0.11031838080220926 50 15 63
0.15447158470908104 0.1605558145590175 -0.260382 194 143 5
-0.09151593827190418 0.018213 0.26896093141599553 58 0 210
0.122297450001466 0.018213 0.3151736599312066 176 0 227
0.004326491696981072 0.15763392637561102 -0.275382 111 140 0
0.12294529436360449 0.20349037395969993 -0.260382 176 186 5
-0.11400755082107641 0.018213 -0.2646694985459711 46 0 4
0.1694162748716581 0.033213 0.2859848132941248 202 15 216
-0.02294742642749842 0.033213 -0.19830544553552465 96 15 29
0.264937 0.03409559103088595 0.03033802511428222 255 15 117
0.264937 0.2635380966669964 0.24237163265360095 255 246 199
0.0749499599985273 0.018213 0.19595112632307662 150 0 181
-0.16870942938336297 0.033213 0.009110997072942467 15 15 109
0.06949133857073497 0.221937011973428 -0.275382 147 204 0
0.07662830331883227 0.018213 0.3218030781849227 151 0 230
0.008332328744433015 0.033213 0.09829142684581577 113 15 144
0.19356723713096222 0.19094970202806485 -0.275382 215 173 0
0.24972 0.1395288782374274 0.2313712289748114 246 121 195
-0.14007149796468962 0.033213 -0.01628762615488491 31 15 99
-0.1653749499909507 0.14698788154306977 -0.275382 17 129 0
-0.07693037407030609 0.033213 -0.2092635191065949 66 15 25
0.10150831038624528 0.018213 0.18946443133505303 164 0 179
0.02951181011742912 0.09856200008908655 -0.260382 125 80 5
0.1665754693684021 0.08739440109737352 -0.019743851122009368 200 69 98
-0.16999448212952573 0.018213 -0.0822211757540096 15 0 74
0.06432133039257029 0.033213 0.3454376670459976 144 15 239
0.15645594789229786 0.033213 0.26272533625546063 195 15 207
0.05740477883916084 0.05661935734776949 0.3398178700661488 140 38 237
0.11880407516837138 0.033213 0.3470206716878328 174 15 240
-0.03836242552325639 0.08925945678659064 -0.275382 87 71 0
0.07510233113747897 0.033213 0.15960459472285354 150 15 167
0.03787067349248979 0.06496714853613064 -0.19609512133367557 129 47 30
-0.054575797177909335 0.033213 0.34435830205709744 78 15 239
-0.03632403013094801 0.2692658465559296 -0.260382 88 252 5
0.249937 0.24958530105826643 -0.02125338984696523 246 232 98
0.20572994948924414 0.033213 -0.12977087946287388 222 15 56
0.16833733688132005 0.018213 0.07789135412663696 201 0 136
0.23946369119359417 0.033213 0.16660546138173543 240 15 170
0.12077967171965723 0.1399679000931564 -0.260597 175 122 5
0.0016603852901977134 0.033213 -0.10220762727371596 109 15 66
0.22703676964234212 0.064658 0.004106406865581211 234 46 107
0.250486 0.1351401381194163 -0.06057966063485837 247 117 82
0.138379640327115 0.018213 0.35156273958065704 185 0 241
0.041599692583398434 0.033213 0.36563859450740066 131 15 247
-0.10573548939484206 0.018213 0.11720442935042379 50 0 151
-0.15811229044536573 0.13991644467372286 -0.275382 21 122 0
-0.02007391060380906 0.033213 0.0602555103008946 97 15 129
0.07219948420523302 0.03489088266618457 0.0895507457122812 148 16 140
0.07200254489951532 0.033213 0.23725555885472221 148 15 197
0.24972 0.1970328359855292 0.18609409598765875 246 179 178
0.12259982236793462 0.18138828553180425 -0.275382 176 164 0
-0.06791472982209093 0.033213 0.300474111194881 71 15 222
0.264937 0.25997384234085164 0.06152362454471594 255 243 129
0.10182978899915646 0.23275252520443934 -0.275382 165 215 0
0.1874202859235376 0.033213 -0.015681931402812314 212 15 100
-0.05737675177107718 0.033213 0.2903205651406592 77 15 218
-0.09900937218396508 0.033213 0.24078107971448515 54 15 199
0.01758713392423647 0.08782151066300542 -0.275382 118 69 0
-0.07585211148114054 0.018213 0.15794072354049113 67 0 167
-0.1702747137321351 0.018213 -0.2330633250768568 15 0 16
0.249937 0.2523909550060025 0.20681532681377826 246 235 186
0.03712574049537676 0.033213 0.05851786996945256 129 15 128
0.08424918501977371 0.033213 -0.010229487264954706 155 15 102
0.011765021966318888 0.09064338748645973 -0.038424510870484326 115 72 91
0.18870023010425968 0.033213 -0.19276423154671446 212 15 31
0.24972 0.18569702653781245 0.0528868101031974 246 168 126
0.249937 0.256236514629588 -0.11819062245940473 246 239 60
-0.03559548417862171 0.033213 0.34160132500179674 89 15 238
-0.054654220878899984 0.018213 0.10568963476626765 78 0 147
0.04793529240263389 0.033213 0.32226122752120684 135 15 230
-0.1047814898420592 0.018213 -0.26795607157647094 51 0 2
-0.1931766667884718 0.07749622385943725 -0.260382 2 59 5
0.07422629413989495 0.033213 -0.09147506720944223 149 15 70
-0.18363530859885488 0.07060855758692151 -0.275382 7 52 0
0.264937 0.02986592393402554 0.19484238260495151 255 11 181
0.1597776863063537 0.20360183595223147 -0.275382 197 186 0
0.14928928758223792 0.033213 0.07042995802249008 191 15 133
0.26099074442325765 0.20270673550669208 0.20632524917273348 252 185 185
0.041446601143620095 0.08896495505333973 0.24941904502324863 131 71 202
0.1644042298065578 0.018213 -0.19466736208567126 199 0 31
-0.0703777413533436 0.14230716302280402 -0.275382 70 124 0
0.19176010904781549 0.24346629381526283 -0.275382 214 226 0
0.249937 0.22043571458455902 -0.14256170603151957 246 203 51
-0.005996732497537877 0.033213 0.2835878496114361 105 15 215
0.2423325448619836 0.09121347892444778 0.0944933582514089 242 73 142
-0.035745111003889024 0.033213 0.14761149848659016 89 15 163
-0.14366533064667616 0.033213 -0.18957792156447018 29 15 33
0.08143683223448328 0.033213 -0.06750838076242088 153 15 80
0.07955444509780388 0.033213 0.29221175903833385 152 15 219
-0.09463344855162586 0.033213 -0.05037661889535683 56 15 86
0.06440481692573334 0.158149 -0.25734405318182285 144 140 6
0.20560505297861859 0.08525727616601184 0.049281548498725354 222 67 125
0.250486 0.15074872063832084 0.01654420157585379 247 133 112
0.23951596456831256 0.018213 0.1017484270138708 240 0 145
0.08821763467506646 0.033213 0.37352419961740235 157 15 250
0.022612623573525975 0.1289321457927698 -0.275382 121 111 0
0.05891937885985875 0.08690141196679002 0.29538344856318877 141 69 220
0.23719259366143683 0.09197896508509436 0.09239182087158261 239 74 141
0.05183530154003388 0.17745741098030823 -0.275382 137 160 0
0.21382048290876052 0.018213 0.36062554223032195 226 0 245
0.0004715570288761073 0.018213 -0.25802584678333923 109 0 6
0.264937 0.0718806626769315 -0.061277356211768455 255 53 82
0.264937 0.1953196545259418 -0.2112326407983685 255 178 24
0.0836502615110257 0.018213 0.3159611559864371 155 0 228
-0.05363502694264885 0.033213 0.016337925935931863 79 15 112
-0.08030450138749362 0.0310112133991899 -0.275382 64 12 0
0.264937 0.028081073697773448 -0.06759290150500022 255 9 80
-0.0013425516683178962 0.09053224425818715 0.23425920270072428 108 72 196
0.1859615994350566 0.08784169361459092 0.02064036634195795 211 70 114
0.05321689165366564 0.0917606670540537 -0.260382 138 73 5
0.1898334722059079 0.09714206871230818 -0.275382 213 79 0
0.18449399143328965 0.0911829176479032 0.23675071770336648 210 73 197
0.19240938446773415 0.06186099058768411 0.2776443218092687 215 43 213
0.24972 0.15856316954527183 0.06884527785394837 246 141 132
0.1654862451209013 0.036671363036301564 0.08469535904249359 200 18 138
0.26183687379025933 0.271802 -0.21708377606257467 253 255 22
0.250486 0.1119693458182914 0.154265508607107 247 94 165
0.08071457134359253 0.018213 -0.07850747913650043 153 0 75
0.264937 0.07131397063585526 0.1374321743233238 255 53 159
-0.17979301763133826 0.018213 -0.14176514861193365 9 0 51
0.014617581020006917 0.063346 0.3561783617507983 117 45 243
0.2285083370658871 0.08611785625884573 0.30283624158402805 234 68 223
-0.16862372136513623 0.033213 -0.1972750193501253 16 15 30
0.264937 0.08678609950484847 -0.2706035493800275 255 68 1
0.21556393098188487 0.033213 0.3114203767619583 227 15 226
0.264937 0.12118026591905046 0.3114732668956325 255 103 226
-0.07111499183558467 0.1254006956737056 -0.258979 69 107 6
0.16773973641133444 0.0875341138005968 0.2998741099607067 201 69 221
0.249937 0.15495075188607735 0.0557481019823296 246 137 127
0.264937 0.2539820336703918 0.28462400479748523 255 237 216
0.264937 0.2605828121450522 -0.2114985032709455 255 243 24
-0.13682341098334988 0.09189086176128479 0.021078969409597012 33 74 114
0.264937 0.2034336160129759 0.3622065695453004 255 186 246
0.07399596777304272 0.05557393391959434 0.29092165015030885 149 37 218
0.249937 0.03805162805805476 -0.06479869340336528 246 19 81
0.24972 0.18223555169939235 0.15718279966918638 246 164 166
0.0019349191706140266 0.063578 -0.004090801829541777 110 45 104
0.16001194156540208 0.07522135758355245 -0.260382 197 57 5
0.21637235034999608 0.033213 0.07392714038844896 228 15 134
-0.05605082319086571 0.07758985335548177 -0.260382 78 59 5
0.264937 0.265526926616351 -0.18049974423998713 255 248 36
-0.029855338033063006 0.033213 -0.16965264743164998 92 15 40
0.249937 0.23525468417198714 0.20528285075196265 246 218 185
-0.197719 0.031073440855011805 0.1460065048573732 0 12 162
-0.19507178738946465 0.08369781696884512 -0.260382 1 65 5
0.19974140044233338 0.2581595444460346 -0.260382 219 241 5
0.249937 0.11989546320354799 0.3812470896448653 246 102 253
-0.18082375609569076 0.08824507582198488 -0.260382 9 70 5
-0.16198272224332172 0.018213 0.002951257159455767 19 0 107
0.20427959241438892 0.018213 0.27762942832924176 221 0 213
0.027388090058942743 0.24096915931692953 -0.275382 124 223 0
0.24972 0.17712517747609313 0.13080481904919317 246 159 156
0.05426508018973475 0.018213 0.3460208751390944 138 0 239
0.04653077272712534 0.0855127954611537 0.04700636180311819 134 67 124
0.24264503891037462 0.018213 0.050606448090261026 242 0 125
0.249937 0.10763817664923059 0.14178612917677108 246 89 160
0.07243032049791176 0.12772541966155937 -0.275382 148 110 0
0.1694959685020816 0.033853823573434826 0.21338192671433392 202 15 188
0.26103233445478347 0.11667313928425356 0.012925711137228138 252 99 111
0.245206254281952 0.018213 0.16813395407347603 244 0 171
0.249937 0.0644137003163354 0.16893844499038435 246 46 171
-0.08880166721688468 0.037549890432311835 -0.275382 60 19 0
0.142115671860818 0.018213 -0.27435728727008496 187 0 0
0.24972 0.20874971061822722 -0.0714658706377681 246 191 78
0.249937 0.09237544756279445 -0.03078180172860437 246 74 94
-0.01589000752223471 0.033213 0.24509536910533355 100 15 200
0.18478214752665859 0.08135070556480298 0.1574438181967548 210 63 167
0.14519328245286747 0.018213 -0.23170078977678005 189 0 16
0.16143411035204794 0.033213 0.09940589361093244 197 15 144
0.0018382560337015003 0.033077 -0.052538373763946905 109 14 85
-0.12407276056875673 0.018213 -0.25875574604627805 40 0 6
-0.18426753510055108 0.033213 -0.2529811074532565 7 15 8
0.2076469228794878 0.08364673298022121 0.2921375538257636 223 65 218
0.25792665383632907 0.018213 0.11424484003899495 251 0 150
-0.1488612238443785 0.018213 0.3488644442766344 26 0 240
0.207145502559105 0.018213 -0.026744541998569765 223 0 95
0.2388887098691429 0.033213 0.25725997121167343 240 15 205
0.102881384770353 0.14555556721368632 -0.260597 165 128 5
0.1326799949897044 0.13911675438504845 -0.260597 182 121 5
-0.1152337620946926 0.033213 0.06942224152409654 45 15 133
0.18851888805394348 0.033213 0.26859320636983613 212 15 209
0.23340831133201487 0.018213 0.11311648327942996 237 0 149
0.23647731188271542 0.05399055618192453 -0.275382 239 35 0
0.250486 0.13574338832726152 0.17476390239982023 247 118 173
0.2601751205713876 0.20270771425531434 0.239061668016663 252 185 198
-0.051005537601368056 0.1190706120367478 -0.275382 80 101 0
-0.1500641351925021 0.018213 0.29942193440342924 26 0 221
0.15283028242885519 0.10715987590427808 -0.275382 193 89 0
0.264937 0.2299985733445698 0.3597021535125001 255 212 245
0.04700800343445816 0.14546051294678858 -0.275382 134 127 0
0.1678025323140261 0.061839 0.15419977231923462 201 43 165
0.21816502715619826 0.08475750426234338 0.1802280446047781 229 66 175
0.249937 0.2652568375978161 -0.01807710079437235 246 248 99
0.19295963553419745 0.0892506009034767 0.15716279334119923 215 71 166
0.250486 0.16095329671072822 -0.1272945232850729 247 143 57
-0.1498570872320649 0.13719907641470938 -0.260382 26 119 5
0.09509497109139453 0.033213 -0.1357684627927131 161 15 53
-0.148906428396811 0.23549294927456033 -0.275382 26 218 0
0.249937 0.0845773194373467 0.26162667968980324 246 66 207
0.25705591487082835 0.11668957515186724 -0.010227404321903149 250 99 102
0.06604535142153553 0.018213 -0.10763128990024057 145 0 64
0.2398405150356224 0.09035403423527494 0.23504403768273413 241 72 196
0.1850958228879121 0.033213 -0.23779205923871027 210 15 14
0.03784078476990066 0.1385765256653313 -0.258979 129 121 6
0.21630247402275654 0.08576916305319339 0.18094112662995887 228 67 176
-0.13471911066370398 0.23699883949846798 -0.260382 34 220 5
0.23343834684940754 0.08545982861755315 0.1838372042552335 237 67 177
-0.08507359766495949 0.033213 0.2234852405816437 62 15 192
0.249937 0.050352696144828527 0.11150149973253715 246 32 149
0.07169639106088631 0.08808912962579869 0.29437285239991795 148 70 219
0.264937 0.14601577206790384 -0.26618933978122356 255 128 3
0.21614019382666463 0.018213 -0.16492559081551067 228 0 42
0.249937 0.16600004808886792 0.08148647660200949 246 148 137
-0.06117166877757657 0.2145558127193934 -0.275382 75 197 0
0.20557750966858193 0.098085570272805 -0.260382 222 80 5
0.264937 0.13016206851157477 0.026898560029091648 255 112 116
-0.197719 0.0227176871684895 -0.2685053522976585 0 4 2
0.24621101208789176 0.030024082791548 -0.275382 244 11 0
0.050036774296457365 0.033213 -0.07088719143015554 136 15 78
0.19695082579930676 0.14353544803222054 -0.260382 217 126 5
0.249937 0.19036562538594146 0.29483913928735617 246 173 220
-0.00022471090605719057 0.018213 -0.06661044058169958 108 0 80
0.19766895430223574 0.033213 -0.2102946664684871 217 15 25
0.249937 0.16000349783258022 0.08863860373100077 246 142 140
0.17192852312414147 0.033213 -0.11540357124290954 203 15 61
0.1570252801741348 0.033213 -0.08075524997293979 195 15 75
0.23605371413457385 0.033213 0.1756665810354487 239 15 174
-0.03022279562891672 0.271802 -0.2704816849042965 92 255 1
0.21556536510967675 0.06083788884840527 0.20531100785205916 227 42 185
0.21776223405582706 0.09190084308877913 0.09691745650437736 228 74 143
0.264937 0.037367041561342795 0.13139047104686988 255 19 156
0.06041859212052922 0.033213 0.2569290229978404 142 15 205
-0.04320649552533898 0.033213 -0.08629322275560855 85 15 72
0.250486 0.12420143544890107 0.20294333162519781 247 106 184
-0.04460565413324258 0.018213 0.27483370593478 84 0 212
-0.1153696834177857 0.018213 -0.15234073085718772 45 0 47
0.10968658470686055 0.2630354369092252 -0.260382 169 246 5
-0.19678635514998008 0.10510433316602448 -0.260382 0 87 5
0.1688666435361977 0.018213 0.2910913700664338 202 0 218
-0.08093475905340569 0.033213 0.0937577180604783 64 15 142
0.20194499296858695 0.04487100461619204 -0.260382 220 26 5
0.1639211663999469 0.018213 0.008872388230583303 199 0 109
-0.025268882878424298 0.033213 0.3313555791346818 95 15 234
-0.19016372525188302 0.033213 -0.17559178396430225 4 15 38
-0.003329401183409214 0.197065982281289 -0.260382 107 179 5
0.21639698605234078 0.033213 0.2740814536277978 228 15 212
0.14697862977124118 0.018213 -0.19486630301451757 189 0 31
0.004913215958697986 0.08952066718213741 0.24004724680825623 111 71 198
0.264937 0.15226980702729104 0.37492056771282034 255 134 250
0.0028888492610532135 0.0903405418066614 0.09973768119878985 110 72 144
0.249937 0.26859815740432735 0.1678179566896212 246 251 171
-0.03816437654791813 0.033213 0.09877697002136562 87 15 144
0.17533701368263763 0.018213 0.22999233098068733 205 0 194
0.249937 0.22932461750266223 0.3236675281972093 246 212 231
0.24972 0.1171086986749244 0.15879978294834826 246 99 167
0.264937 0.13307410322658775 0.3747278691622497 255 115 250
0.22652065353952464 0.064426 0.3386503868951332 233 46 236
-0.08397677083072659 0.05915175679120151 0.010631300256911405 62 41 110
0.250486 0.20826098120631095 0.2788288352885183 247 191 213
0.16802097912370995 0.033213 -0.02516358808060927 201 15 96
0.24791288837033848 0.033213 0.13376490785352566 245 15 157
0.249937 0.045812711924491836 -0.19050414072343372 246 27 32
0.04995058574028011 0.07379878614290217 -0.275382 136 55 0
0.02604158215904659 0.17977897606404783 -0.260382 123 162 5
0.2210733362896398 0.018213 0.35219677961979 230 0 242
0.04311661265202266 0.033213 -0.22421765571858182 132 15 19
0.12007648257737902 0.19081723100999975 -0.260382 175 173 5
0.24972 0.12247997552599353 -0.07062810732434388 246 104 79
0.1530346779545481 0.018213 -0.106480483033371 193 0 65
0.20412371608189217 0.033213 0.030054592038571748 221 15 117
-0.1537683335707658 0.018213 -0.19485431750667206 24 0 31
0.250486 0.19052210574251793 -0.1585431327070046 247 173 45
0.264937 0.2311798415754758 0.10057578582609467 255 214 145
0.07590321543917437 0.08989307000092676 0.23368195395065813 150 72 196
0.24972 0.10531240488055299 0.0497542241507688 246 87 125
-0.12508673733772202 0.08878386310713934 -0.275382 40 70 0
-0.07593963312590167 0.033213 -0.06268315175573917 67 15 82
0.13173544003579832 0.16197146071819893 -0.260382 181 144 5
0.12822970985098503 0.033213 0.19269085225639057 179 15 180
0.24972 0.17029046011004317 -0.10166695207650772 246 152 67
-0.011104498503514804 0.03779323215311181 -0.260382 102 19 5
0.11301391438820099 0.018213 -0.08500418987652524 171 0 73
0.264937 0.22165771023474162 0.007252129457075408 255 204 109
-0.08880968544498337 0.08878025554829268 0.038788389082604784 60 70 121
0.16633759056354355 0.018213 -0.022959801857038234 200 0 97
0.015069496239733443 0.018213 0.032832569025642876 117 0 118
0.264937 0.0741883108183512 0.3497742069440528 255 56 241
-0.07159589189097088 0.13546058175566644 -0.260382 69 117 5
0.02566952385542426 0.063346 0.07597606273799787 123 45 135
0.145179908833548 0.033213 0.1158418741217099 188 15 150
0.264937 0.2099880189925654 0.2008417895365841 255 192 183
0.07288812579646356 0.07607140306484933 0.03277672957461743 149 58 118
-0.008709651348114106 0.033213 -0.23198914483933097 104 15 16
0.2188897511109362 0.08956548497042889 0.24593002873011235 229 71 201
-0.17835368354779 0.033213 -0.032857601606959136 10 15 93
0.249937 0.2251209121519337 -0.06026376497756332 246 208 83
0.264937 0.21777047605628952 0.36412670963907706 255 200 246
0.10510125434383402 0.11605849624103964 -0.260597 166 98 5
-0.08611789806969351 0.05494357558431647 0.13101201070325827 61 36 156
0.04610446027281301 0.033213 -0.20969100158207227 134 15 25
0.043694472585636364 0.08894154400935296 0.36268212540431505 133 71 246
-0.012158210126007069 0.033213 0.1083256125293185 102 15 148
-0.08085913613174246 0.033213 0.2352326193717355 64 15 197
-0.07783210002049648 0.033213 -0.16253972419473425 66 15 43
0.1672424141235673 0.063578 0.2690464269984342 201 45 210
0.21940910344727318 0.033213 0.3024164514869069 229 15 222
0.15261486828344736 0.033213 0.15858845657051682 193 15 167
0.13933980983765168 0.052015017430738365 -0.275382 185 33 0
-0.15345648081975355 0.03387222567198656 0.09192409730331612 24 15 141
-0.003767018150202417 0.018213 0.2665860114345293 106 0 209
0.08629084218842606 0.033213 -0.00896919399438409 156 15 102
-0.006029932689905454 0.10498445588340938 -0.260597 105 87 5
0.18635024343929002 0.22352455455907635 -0.275382 211 206 0
-0.18229212538710646 0.033213 -0.012375433529124957 8 15 101
0.1425381861881667 0.07196442327893926 -0.275382 187 54 0
0.21059588527002834 0.018213 0.24911630101475718 225 0 202
0.03033532423835434 0.09240542105844034 0.09409298808274011 125 74 142
0.264937 0.17124226132708437 0.3415855930771943 255 153 238
-0.18305816917652093 0.13681714002671752 -0.260382 8 119 5
0.249937 0.10234768124857957 -0.03349910508017531 246 84 93
-0.05841818722282524 0.09381131971610024 -0.275382 76 76 0
0.0034721259313028503 0.05716914319839296 0.29184893363240766 110 39 218
0.24972 0.17159741810496731 0.24945671964136304 246 154 202
-0.009595038012406604 0.033213 -0.11021714832256843 103 15 63
0.250486 0.1963729395510062 -0.1528573713928288 247 179 47
-0.039804687693889285 0.24352554152692518 -0.275382 87 226 0
0.264937 0.14328945354671474 -0.15168566751418355 255 125 47
0.004175591402038289 0.08584853889942912 0.3055901040671372 111 68 224
0.07032008589389034 0.05843857458549617 0.3408597216137366 147 40 237
0.11394843662211471 0.018213 -0.20446467755893175 171 0 27
0.249937 0.06229718537712593 0.037316948214455414 246 44 120
-0.10416674134139564 0.018213 0.008799711651531466 51 0 109
0.10407176021744335 0.033213 -0.059586707736928084 166 15 83
0.238248438946265 0.04216338957191258 0.23316002640186725 240 24 196
0.05981763781366631 0.018213 -0.15076201670580303 141 0 48
0.264937 0.21536639788267703 -0.0469133612487312 255 198 88
0.1745899683126046 0.018213 0.12154932691073754 205 0 153
-0.1639493687563965 0.033213 0.22694069489904758 18 15 193
0.07409689892307214 0.05380064766826965 0.22193688617083282 149 35 191
